ply
format ascii 1.0
element vertex 1021
property float x
property float y
property float z
property uchar red
property uchar green
property uchar blue
end_header
-0.26377392 -0.07250892 -0.45368290 198 163 107
0.26340121 -0.16683932 0.49733463 198 163 107
-0.47249308 -0.17370424 0.38256672 198 163 107
-0.27376395 -0.16931424 -0.09063143 198 163 107
-0.30070680 -0.16887128 -0.10265373 198 163 107
-0.00081951 -0.12321775 -0.00900562 198 163 107
-0.39778411 -0.16748394 -0.13373785 198 163 107
-0.06196258 -0.03717486 -0.65798521 198 163 107
0.33154184 -0.16807561 -0.14757349 198 163 107
0.00049497 0.03687032 0.03891011 198 163 107
-0.00378492 -0.00536570 -0.15069845 198 163 107
0.37527612 -0.02739069 -0.16818765 198 163 107
0.15726955 -0.17074394 -0.01754105 198 163 107
-0.20509525 -0.00570451 -0.24240859 198 163 107
-0.26185858 -0.16355912 0.48085800 198 163 107
0.03213559 0.02616213 -0.65892226 198 163 107
-0.55839181 -0.18326925 0.64911699 198 163 107
-0.37951526 -0.16556887 0.17528500 198 163 107
-0.54784298 -0.22869630 -0.28036851 198 163 107
-0.28914845 -0.00401554 -0.32280242 198 163 107
0.26185000 -0.16798329 0.32265458 198 163 107
0.09785052 0.21958312 -0.36142832 198 163 107
0.35154358 -0.02506962 -0.54525608 198 163 107
0.00969299 0.02122485 0.12393965 198 163 107
-0.22409140 -0.10687327 -0.49711704 198 163 107
0.11716069 -0.16577584 0.53703696 198 163 107
0.11199246 0.05957241 -0.62133205 198 163 107
0.18233541 0.08553569 -0.55264556 198 163 107
-0.56082070 -0.18005757 0.60097581 198 163 107
-0.27652076 -0.06140514 -0.25508973 198 163 107
0.27166155 -0.16768132 0.33749062 198 163 107
0.53079236 -0.16665900 0.29127285 198 163 107
0.17289227 -0.16790426 0.38388091 198 163 107
0.43873489 -0.11495502 -0.35668945 198 163 107
0.38588014 -0.17042810 -0.59222102 198 163 107
-0.48291388 -0.18133822 -0.43432054 198 163 107
0.54365301 -0.24592417 0.24007544 198 163 107
-0.13728747 -0.07639907 -0.20246859 198 163 107
0.11188002 -0.13353442 0.39425054 198 163 107
0.43448180 -0.12274572 -0.36718822 198 163 107
0.41049784 -0.16892825 -0.04418436 198 163 107
-0.09642759 -0.17020735 0.02056415 198 163 107
-0.01760972 0.03429794 0.17137054 198 163 107
-0.19137794 -0.16303426 0.54060799 198 163 107
0.43775266 -0.16905457 -0.59016967 198 163 107
-0.35949963 -0.21313627 -0.83600956 198 163 107
-0.45329306 -0.17015918 -0.40236956 198 163 107
0.03783794 0.10295852 0.27250916 198 163 107
-0.10389278 0.07160550 -0.58699656 198 163 107
-0.36689976 -0.16968457 -0.44427881 198 163 107
0.07333489 -0.11861825 -0.11138875 198 163 107
-0.51723284 -0.21149066 -0.82378340 198 163 107
0.23816912 -0.16910331 0.17890421 198 163 107
0.41114244 -0.05122644 -0.45045570 198 163 107
0.38392174 -0.22570364 -0.83341759 198 163 107
0.15487885 0.12152088 -0.45722428 198 163 107
0.39374536 -0.16714022 0.28305510 198 163 107
0.00025489 -0.14577733 0.50515270 198 163 107
-0.13521186 -0.17041433 -0.00154801 198 163 107
-0.01982430 -0.23355325 -0.83121848 198 163 107
0.55803323 -0.19803821 -0.75208580 198 163 107
-0.04797286 -0.07812557 0.35633513 198 163 107
-0.46499386 -0.17490093 0.01267481 198 163 107
-0.11947341 -0.17093819 -0.04059858 198 163 107
-0.46450275 -0.17132416 0.22633407 198 163 107
-0.03274684 0.15799008 -0.48691323 198 163 107
0.24330902 -0.16883951 0.07610817 198 163 107
-0.54551983 -0.16279598 0.47803140 198 163 107
-0.00989388 0.02556003 -0.14729160 198 163 107
0.38431728 0.04249011 -0.27889857 198 163 107
0.00475091 -0.04554116 0.18243289 198 163 107
-0.22061643 -0.17319971 -0.70315522 198 163 107
0.03178839 0.12075855 0.31414315 198 163 107
0.40286213 -0.16883379 -0.00689250 198 163 107
0.38793665 -0.16512325 0.70639336 198 163 107
0.10362164 -0.16562104 0.71071839 198 163 107
0.28038186 -0.24070041 0.71738768 198 163 107
0.56288266 -0.17057720 0.47310063 198 163 107
0.16100819 0.18194377 -0.39004663 198 163 107
-0.54640800 -0.16716303 -0.53756642 198 163 107
0.55139363 -0.22152391 0.58470124 198 163 107
-0.13919222 -0.10374455 -0.58864290 198 163 107
0.28350767 0.14390312 -0.36253202 198 163 107
-0.05778053 -0.17364901 -0.83487201 198 163 107
0.23543212 -0.16590177 0.72982800 198 163 107
0.44447505 -0.16713180 -0.42476824 198 163 107
-0.02470565 -0.00888302 0.54379624 198 163 107
-0.20593771 -0.16850078 0.64044726 198 163 107
-0.18201956 -0.02102785 -0.58583760 198 163 107
-0.00747712 0.17639577 -0.38737810 198 163 107
-0.01409696 -0.17129844 -0.10369790 198 163 107
0.01266329 -0.17191905 -0.10027818 198 163 107
0.36145103 -0.16498670 0.69121468 198 163 107
0.44866124 -0.16947845 -0.17959210 198 163 107
-0.05545752 -0.03250133 -0.66038579 198 163 107
-0.54761636 -0.23389082 -0.07061779 198 163 107
0.18310194 -0.21447575 -0.83646661 198 163 107
-0.21182272 -0.12428457 -0.50032568 198 163 107
-0.17162874 -0.17125055 -0.20153260 198 163 107
0.07178805 -0.16664529 0.52535576 198 163 107
0.40038934 -0.16641963 0.46924034 198 163 107
-0.33477467 -0.16490708 0.68050289 198 163 107
-0.27565205 -0.21123828 0.72673094 198 163 107
0.30250183 -0.17150170 -0.54845345 198 163 107
-0.44388413 -0.18285316 -0.68467402 198 163 107
0.10950562 0.17266318 -0.26520312 198 163 107
0.19111970 -0.17156036 0.17206284 198 163 107
-0.22295207 -0.17057374 0.67554265 198 163 107
-0.00876729 0.10068233 0.23300754 198 163 107
0.32804337 -0.16923252 0.04230271 198 163 107
-0.03021780 -0.16598251 0.63972074 198 163 107
0.38272452 -0.16684288 0.11886433 198 163 107
-0.55098701 -0.22580351 -0.54531175 198 163 107
0.17845806 0.11404802 -0.59806079 198 163 107
0.38100323 -0.17556319 0.65332645 198 163 107
-0.34526032 -0.16458729 0.40668106 198 163 107
0.33606359 -0.16742951 0.39898008 198 163 107
-0.02626529 0.00505325 -0.15575939 198 163 107
0.56316429 -0.17765200 -0.29702112 198 163 107
-0.36501014 -0.16533551 0.31046709 198 163 107
-0.04600216 0.07018602 0.42735994 198 163 107
-0.10002811 -0.20385027 0.74118477 198 163 107
-0.08488272 -0.01607500 -0.18000148 198 163 107
0.27704281 -0.16739288 0.35809952 198 163 107
0.39578682 -0.16896981 0.01317335 198 163 107
0.09897962 -0.08001158 -0.13457382 198 163 107
0.53882837 -0.16793221 -0.03774403 198 163 107
-0.04095539 0.01046838 0.41813338 198 163 107
0.06754415 -0.17944472 0.66087562 198 163 107
-0.38066983 -0.16636829 0.01441066 198 163 107
-0.35297817 -0.16430452 0.61768383 198 163 107
-0.40593612 -0.17810297 -0.77731836 198 163 107
-0.43455362 -0.16839606 -0.44356906 198 163 107
-0.53376561 -0.23581028 -0.80318946 198 163 107
0.23814809 -0.16689065 0.42118606 198 163 107
0.33326924 0.01291303 -0.54054463 198 163 107
0.11435444 -0.16677630 0.47876507 198 163 107
-0.27940786 -0.19827309 0.73038012 198 163 107
0.13705564 -0.10449287 0.37091655 198 163 107
-0.02868571 0.09395391 0.22942445 198 163 107
0.03805783 0.09294625 0.26659226 198 163 107
0.26853576 -0.16866446 0.08733724 198 163 107
0.53576738 -0.16657254 0.19798893 198 163 107
0.39669654 -0.16780961 0.07177313 198 163 107
-0.02967637 0.12808174 0.38050371 198 163 107
-0.21768868 -0.04338057 -0.26647386 198 163 107
-0.34716415 -0.16549759 0.25801101 198 163 107
-0.17992553 -0.20548269 0.73646671 198 163 107
0.11783489 -0.03522900 -0.10254806 198 163 107
-0.07126785 -0.13877061 0.47952724 198 163 107
-0.51151371 -0.16678137 -0.54011953 198 163 107
0.02289532 0.15200382 0.25703606 198 163 107
-0.01503394 -0.10217669 0.09224852 198 163 107
-0.00662285 -0.11763192 0.02863382 198 163 107
-0.27820274 -0.16420589 0.50804192 198 163 107
-0.46938407 -0.17707539 -0.06874432 198 163 107
0.30373803 -0.16720243 0.43083903 198 163 107
0.07442455 0.05249745 0.39044729 198 163 107
0.49073678 -0.22254877 0.69643539 198 163 107
0.06568382 -0.16591193 0.59675694 198 163 107
0.25451833 -0.16833796 0.22873035 198 163 107
0.53016192 -0.16577804 0.44362256 198 163 107
0.02977623 -0.17306320 -0.64854544 198 163 107
0.08136085 -0.10302114 0.46574235 198 163 107
-0.01945680 -0.11709020 0.14318697 198 163 107
-0.06625676 -0.18235955 -0.83987969 198 163 107
-0.29542944 -0.16973987 -0.21304803 198 163 107
0.07022397 0.18954194 -0.17663829 198 163 107
0.18253875 -0.16581833 0.60584044 198 163 107
0.56040275 -0.19282509 -0.37935606 198 163 107
0.55627143 -0.20783353 -0.57649195 198 163 107
0.10686351 -0.04582138 0.11863207 198 163 107
0.05418677 -0.04240934 -0.13992080 198 163 107
-0.42982215 -0.22299227 -0.83182228 198 163 107
-0.10897217 -0.16472594 0.73231506 198 163 107
-0.17188306 -0.16594429 0.32061061 198 163 107
-0.21017717 -0.17202812 -0.53712970 198 163 107
0.10060969 -0.06578772 0.43245786 198 163 107
-0.00587908 0.03975746 0.06396647 198 163 107
-0.20313632 -0.16559280 0.34422708 198 163 107
-0.00271711 0.07537211 0.07347664 198 163 107
0.35155877 -0.16770144 0.18350080 198 163 107
-0.22129419 -0.17039096 -0.15324882 198 163 107
-0.41368735 -0.17230886 -0.81766760 198 163 107
0.12726161 0.24696106 -0.33816707 198 163 107
0.23283012 0.13977331 -0.42462373 198 163 107
0.49910361 -0.17306568 0.47134545 198 163 107
0.35668617 -0.18181255 -0.77829063 198 163 107
0.09078781 0.08207035 -0.09342092 198 163 107
0.08259301 0.02525763 0.12853426 198 163 107
-0.02845250 -0.16483857 0.59286290 198 163 107
0.01469199 0.07369477 0.45091182 198 163 107
-0.02753583 -0.19617885 -0.84117699 198 163 107
-0.28948277 -0.22266498 0.72275823 198 163 107
0.12513326 -0.17277807 -0.64173824 198 163 107
0.30327860 -0.03215186 -0.07743677 198 163 107
0.42688882 -0.17188412 -0.81198967 198 163 107
0.18486024 -0.22635227 0.73230314 198 163 107
0.00032196 -0.07680912 -0.01058613 198 163 107
-0.55064929 -0.21988410 0.24811423 198 163 107
-0.44026124 -0.16325457 0.43025738 198 163 107
-0.05195211 -0.11150136 0.34568831 198 163 107
-0.53620863 -0.16425872 0.65159619 198 163 107
-0.48079360 -0.18119724 -0.68109906 198 163 107
0.15241152 0.02273586 -0.62667799 198 163 107
0.55465031 -0.21151239 0.07075872 198 163 107
0.48719928 -0.17477717 -0.76681525 198 163 107
-0.54342228 -0.18450516 -0.80982417 198 163 107
0.28480884 0.14446685 -0.31391191 198 163 107
0.32508159 -0.17728962 0.65512401 198 163 107
0.51825762 -0.16757061 -0.26621342 198 163 107
-0.39994496 -0.18388075 -0.73156309 198 163 107
-0.05976450 0.00588005 -0.17010055 198 163 107
-0.19274960 -0.16283707 0.23722395 198 163 107
0.22988349 -0.17195648 -0.68685049 198 163 107
-0.19173199 -0.16796455 0.68222827 198 163 107
0.03225520 -0.12274703 -0.65798473 198 163 107
0.33035079 -0.16696826 0.59155655 198 163 107
0.26656947 -0.10068023 -0.61330628 198 163 107
-0.00595305 0.12429921 0.22374141 198 163 107
-0.54174066 -0.24677154 -0.06535661 198 163 107
0.28920335 -0.15052858 -0.56051779 198 163 107
0.50554067 -0.17193949 -0.81340754 198 163 107
-0.22461590 0.06420445 -0.21894819 198 163 107
0.04589075 0.09134889 0.31448525 198 163 107
-0.01011449 0.08901543 0.45766509 198 163 107
0.56236458 -0.18175316 -0.19452870 198 163 107
0.08550738 -0.17234188 0.68244827 198 163 107
0.44299045 -0.16799611 0.10081187 198 163 107
-0.05692355 -0.07056299 0.53923815 198 163 107
0.19615377 -0.17803225 0.66835856 198 163 107
0.49102879 -0.16453993 0.67461157 198 163 107
0.15174854 -0.08946150 0.23961806 198 163 107
-0.28751576 -0.10084720 -0.38616896 198 163 107
0.05904742 0.06269339 0.13246031 198 163 107
-0.56450677 -0.17540237 -0.13146041 198 163 107
0.17131649 0.17949244 -0.47605133 198 163 107
-0.22534385 -0.16155240 -0.45644867 198 163 107
0.41017729 -0.02723029 -0.22457896 198 163 107
-0.15716529 -0.17127542 -0.14295405 198 163 107
-0.04511334 -0.04303288 -0.16358563 198 163 107
0.31621563 0.10350710 -0.22372286 198 163 107
0.11546857 -0.01416523 0.38986960 198 163 107
-0.16099580 -0.16529793 0.62431824 198 163 107
0.10031343 -0.18859136 0.74436545 198 163 107
-0.17447746 -0.08073479 -0.22225061 198 163 107
-0.24496365 -0.15475875 -0.42994750 198 163 107
0.05191113 -0.16560668 0.70590389 198 163 107
0.10883000 -0.17033726 0.07355957 198 163 107
-0.19144392 -0.17129084 -0.17721461 198 163 107
0.09908374 -0.16439852 0.36817676 198 163 107
0.00678926 -0.06300341 0.20004170 198 163 107
-0.56296283 -0.18356968 -0.35051477 198 163 107
0.41956994 -0.16697980 0.32317775 198 163 107
-0.13564876 -0.12077333 -0.57689464 198 163 107
-0.23729369 -0.17025925 -0.17298394 198 163 107
-0.10573956 -0.16868588 0.17295927 198 163 107
-0.23677494 0.03625073 -0.46787232 198 163 107
-0.11045457 -0.17136817 0.67725921 198 163 107
0.34939554 -0.04366048 -0.13067015 198 163 107
0.28282988 -0.16743353 0.36651471 198 163 107
-0.01863298 -0.17055927 -0.62054509 198 163 107
-0.38344955 -0.17304209 -0.80333775 198 163 107
0.26727274 0.09772618 -0.15015361 198 163 107
-0.30054802 -0.16666566 0.27475581 198 163 107
-0.17367060 0.05170864 -0.20786870 198 163 107
0.52714717 -0.16589689 -0.15625313 198 163 107
-0.32869038 -0.22765703 0.71855140 198 163 107
-0.36507574 -0.16414349 0.41888347 198 163 107
0.44179553 -0.22014724 0.70488298 198 163 107
0.03106340 0.09016886 0.40570065 198 163 107
-0.07609978 -0.00862394 -0.64453471 198 163 107
-0.54191536 -0.24431090 0.47422752 198 163 107
0.04577814 0.01877129 0.47937074 198 163 107
0.09970371 -0.02708964 0.11801255 198 163 107
0.54956007 -0.23307166 -0.33537954 198 163 107
0.05058084 0.21738306 -0.19157045 198 163 107
-0.16655321 -0.16443759 0.48765767 198 163 107
0.36128408 -0.16873083 -0.02907135 198 163 107
0.49460769 -0.17820784 -0.33460951 198 163 107
-0.23085310 -0.17267893 -0.68842411 198 163 107
-0.04865752 -0.06511228 0.55817825 198 163 107
-0.55831760 -0.17179519 0.26263538 198 163 107
-0.42218480 -0.16565199 0.04334208 198 163 107
-0.12519374 -0.16679147 0.36597502 198 163 107
0.25985807 -0.08184002 -0.02601658 198 163 107
0.23606244 -0.09751749 -0.03783333 198 163 107
-0.00904016 -0.17260373 -0.71968514 198 163 107
-0.11961898 -0.16471303 0.54694295 198 163 107
0.00022473 0.18490441 -0.26949185 198 163 107
0.46383506 -0.18450892 -0.67208225 198 163 107
0.02838368 -0.17099518 -0.06952033 198 163 107
0.14147741 0.12786010 -0.48624265 198 163 107
-0.00175671 -0.12467077 -0.02448234 198 163 107
0.09016563 0.13226715 -0.52843559 198 163 107
-0.24668337 -0.10809831 -0.46697980 198 163 107
-0.03259001 0.01298953 0.22624838 198 163 107
-0.28474990 -0.16440724 0.58693635 198 163 107
0.09974609 -0.22109528 0.73670042 198 163 107
0.54838943 -0.23707394 0.09686098 198 163 107
0.40596062 -0.04671459 -0.20870705 198 163 107
-0.19737810 -0.01668778 -0.57231706 198 163 107
-0.14308448 -0.15972596 -0.53614104 198 163 107
0.09299405 0.02858346 -0.10472544 198 163 107
-0.24105428 -0.00581371 -0.50213015 198 163 107
-0.00328384 -0.18356544 0.74867743 198 163 107
-0.27438435 -0.16574760 -0.28124678 198 163 107
0.23751767 -0.17740208 0.66312081 198 163 107
-0.29512429 -0.09933081 -0.35618126 198 163 107
-0.38855678 -0.16485693 0.24022664 198 163 107
0.11231439 0.22499518 -0.37905750 198 163 107
0.16294858 0.02100986 -0.60580057 198 163 107
-0.31420985 -0.16451471 0.54490012 198 163 107
0.34115008 -0.16730717 0.38986045 198 163 107
0.33936930 -0.16646594 0.55930954 198 163 107
0.55571437 -0.20824897 -0.64356738 198 163 107
0.37076217 -0.01058825 -0.50642401 198 163 107
0.31746295 0.10634626 -0.37001669 198 163 107
0.25240433 -0.17171633 -0.66447663 198 163 107
0.25413406 -0.16804524 0.32211080 198 163 107
-0.25197592 -0.17978346 -0.77001023 198 163 107
0.43395126 -0.16839750 -0.04406429 198 163 107
-0.14130361 -0.16435948 0.63107055 198 163 107
-0.54584318 -0.23575836 0.17148881 198 163 107
0.01588001 0.12621760 0.32599527 198 163 107
0.38315868 -0.16828012 -0.24988076 198 163 107
-0.33916813 -0.16459876 0.50216132 198 163 107
0.00126393 -0.04023699 -0.01719255 198 163 107
0.49800518 -0.17413336 0.35141256 198 163 107
0.03158620 0.07993787 0.20412931 198 163 107
0.06438449 0.16878700 -0.18816774 198 163 107
-0.49826118 -0.16472505 0.09091444 198 163 107
0.14341229 -0.17102177 0.14158480 198 163 107
-0.04011858 0.09641272 0.41371554 198 163 107
0.14010152 0.02169367 -0.61467969 198 163 107
-0.04402678 0.05604579 -0.62710172 198 163 107
0.48498699 -0.16452989 0.66900539 198 163 107
-0.00780835 0.01321217 0.17020091 198 163 107
-0.22034810 0.10392857 -0.31457925 198 163 107
0.13292748 0.11915977 -0.56769770 198 163 107
0.04161651 -0.17009377 0.74131489 198 163 107
-0.55328631 -0.21182641 0.19952273 198 163 107
-0.13294756 0.01601968 -0.19862850 198 163 107
0.37053812 -0.03974446 -0.52243161 198 163 107
0.12870091 0.01775279 0.27342308 198 163 107
0.00649479 0.12772937 0.22145908 198 163 107
-0.12564825 -0.16652317 0.42272228 198 163 107
-0.55434525 -0.21457598 -0.16226736 198 163 107
-0.30457953 -0.16510996 0.37694755 198 163 107
-0.40375522 -0.16572350 0.07363497 198 163 107
0.37678647 -0.16502012 0.59790611 198 163 107
0.15196222 -0.07926194 0.28504142 198 163 107
-0.35769504 -0.16815509 -0.26114145 198 163 107
-0.55318666 -0.16679028 -0.33635023 198 163 107
0.03022145 0.11130244 0.24977189 198 163 107
0.41185111 -0.04810970 -0.22068281 198 163 107
0.18431862 -0.06472260 -0.65014237 198 163 107
0.54479933 -0.24404731 0.55067837 198 163 107
-0.21889526 -0.17323491 -0.69295895 198 163 107
-0.44054973 -0.17187358 -0.60657680 198 163 107
-0.40417933 -0.16741921 -0.20953941 198 163 107
-0.26786983 -0.16661665 0.17296290 198 163 107
-0.54607821 -0.16490740 0.01806667 198 163 107
0.42190230 -0.16672380 0.41847432 198 163 107
-0.22363099 0.07872503 -0.26800787 198 163 107
0.54822391 -0.22921643 0.63168788 198 163 107
0.41632202 -0.05492318 -0.22775275 198 163 107
-0.21182519 -0.22220376 0.72989601 198 163 107
0.00173366 -0.18470901 -0.84444535 198 163 107
0.38781494 -0.16514200 0.70432866 198 163 107
0.39890870 -0.15705614 -0.27202314 198 163 107
-0.38242832 -0.16333777 0.51930070 198 163 107
-0.42460725 -0.16709912 -0.21109630 198 163 107
0.10413384 -0.13699806 0.41018987 198 163 107
-0.43132326 -0.16669637 -0.06858333 198 163 107
-0.42246872 -0.16443372 0.68287504 198 163 107
-0.41482818 -0.16377550 0.37092590 198 163 107
-0.30240387 -0.16376382 0.71095896 198 163 107
0.39254582 -0.16793993 0.05019152 198 163 107
-0.38925296 -0.16867159 -0.36845246 198 163 107
-0.35607678 -0.17018029 -0.48487473 198 163 107
0.01892124 -0.15094249 0.00055523 198 163 107
0.04902487 -0.16728063 0.47666198 198 163 107
-0.17999160 -0.16261736 0.52830124 198 163 107
0.24055479 -0.16866249 0.25383753 198 163 107
-0.56299448 -0.17771393 -0.66172504 198 163 107
-0.30680370 -0.17210424 -0.71315038 198 163 107
0.31297001 -0.17820880 0.64476693 198 163 107
0.37027568 -0.12721781 -0.51132548 198 163 107
0.38045967 -0.16589448 0.53385305 198 163 107
0.34922963 -0.09597710 -0.55415154 198 163 107
0.07199708 -0.13852574 0.05087146 198 163 107
0.27198654 -0.16908723 0.67395610 198 163 107
0.38858801 -0.15030880 -0.45563650 198 163 107
-0.34982342 -0.24702623 0.83054531 198 163 107
0.55907369 -0.19710231 -0.23400912 198 163 107
-0.03438693 0.05067578 0.31907997 198 163 107
-0.06501967 0.15239185 -0.48192868 198 163 107
0.02519551 -0.17491095 -0.82408190 198 163 107
0.23675600 -0.18722427 -0.76175582 198 163 107
-0.46861386 -0.18006435 -0.39057657 198 163 107
-0.00327296 -0.17239183 -0.72698557 198 163 107
0.36561707 -0.16785547 0.29470295 198 163 107
-0.54817420 -0.23582006 -0.60344154 198 163 107
-0.36351991 -0.16640013 0.08731965 198 163 107
-0.02165639 0.01708760 -0.15332457 198 163 107
-0.14512704 -0.17269345 -0.63297933 198 163 107
0.08291576 0.10801904 -0.09071085 198 163 107
0.07784559 -0.09366538 0.47361797 198 163 107
0.50998563 -0.16475016 0.65459561 198 163 107
-0.06747371 -0.16545641 0.73094362 198 163 107
0.01026592 -0.04864378 0.06507125 198 163 107
0.04603276 0.10790104 -0.11144120 198 163 107
0.05094186 -0.10170783 -0.12277568 198 163 107
-0.36598909 -0.16398859 0.50599372 198 163 107
-0.20268756 -0.16786870 0.17105439 198 163 107
0.55310059 -0.21992536 -0.61566371 198 163 107
-0.20051382 -0.06658831 -0.23060971 198 163 107
-0.12419128 0.15686387 -0.30941814 198 163 107
-0.23125401 -0.23197976 -0.83105206 198 163 107
-0.15796085 -0.17105636 -0.03666155 198 163 107
-0.03268594 -0.03453674 -0.15794896 198 163 107
0.40264019 -0.18680364 0.71881056 198 163 107
0.52959293 -0.16759267 -0.13570866 198 163 107
0.22674021 -0.16970399 0.18306682 198 163 107
0.09794508 -0.04875195 -0.66902059 198 163 107
0.18542625 -0.17018533 0.12907051 198 163 107
0.34376931 0.04211038 -0.49285254 198 163 107
-0.17795795 -0.06787067 -0.21872732 198 163 107
-0.08868678 0.16178361 -0.22032283 198 163 107
0.00195639 -0.04697931 -0.14794664 198 163 107
-0.22689018 -0.16837931 0.00006541 198 163 107
-0.52125329 -0.16255370 0.30029336 198 163 107
0.39756408 -0.17630211 0.63053489 198 163 107
0.55437303 -0.21138492 0.55639589 198 163 107
0.35062882 -0.17092092 -0.60762239 198 163 107
0.34553531 -0.17672224 0.65074551 198 163 107
0.32247505 -0.16803382 0.34552595 198 163 107
0.22898884 -0.15054873 -0.60847640 198 163 107
0.54682899 -0.23875536 0.29533827 198 163 107
-0.17740050 -0.17227894 -0.57134485 198 163 107
-0.43348789 -0.18429345 -0.75982058 198 163 107
-0.56363779 -0.17799193 0.51759195 198 163 107
0.25090435 -0.18488711 -0.84306037 198 163 107
0.00447320 0.08113182 0.45210528 198 163 107
0.02380267 -0.16807795 -0.00769347 198 163 107
-0.47042084 -0.17193666 0.56205881 198 163 107
0.42882150 -0.04826997 -0.28860024 198 163 107
-0.29473969 -0.03391433 -0.32367617 198 163 107
0.17372929 -0.16781993 0.35652643 198 163 107
-0.43639678 -0.18336755 -0.73376226 198 163 107
-0.17251816 0.13525204 -0.36982179 198 163 107
-0.10005559 0.09268911 -0.17522268 198 163 107
-0.53619546 -0.16698997 -0.45388716 198 163 107
0.39284956 -0.16541630 0.58142716 198 163 107
-0.44134134 -0.16204606 0.59060562 198 163 107
0.55126703 -0.22289446 -0.67119223 198 163 107
0.24186184 -0.16875625 0.05219762 198 163 107
-0.28980309 -0.16601244 0.20897952 198 163 107
-0.02582306 0.10095498 -0.14114884 198 163 107
-0.55781817 -0.18605596 0.36534357 198 163 107
0.46968088 -0.18540542 -0.33778349 198 163 107
-0.01898748 0.06195240 -0.15011390 198 163 107
-0.48607707 -0.18025762 -0.73941034 198 163 107
0.15152040 0.22182420 -0.32927677 198 163 107
0.13717236 -0.16546577 0.71677077 198 163 107
-0.26427138 0.03593725 -0.32225457 198 163 107
-0.03587769 0.12501541 -0.52928919 198 163 107
0.46599418 -0.18472788 -0.53867102 198 163 107
0.02694670 0.04994905 -0.13370073 198 163 107
0.26529050 -0.02143540 -0.02416975 198 163 107
-0.16305012 0.08102946 -0.19637482 198 163 107
0.28376231 -0.16833521 0.19654539 198 163 107
-0.32635379 -0.16392225 0.58859897 198 163 107
0.10710266 0.20797373 -0.39039019 198 163 107
-0.04959482 0.16389543 -0.23025416 198 163 107
0.01226930 -0.17197713 -0.10897075 198 163 107
-0.00650414 -0.02619159 0.53658211 198 163 107
0.18378878 0.11071075 -0.10030080 198 163 107
-0.05707732 0.15790488 -0.18056926 198 163 107
-0.19116358 -0.19999222 0.73722935 198 163 107
0.22587904 -0.18670355 -0.76313090 198 163 107
-0.38556951 -0.16327131 0.57162100 198 163 107
-0.32000738 -0.16764432 -0.08567510 198 163 107
-0.17390116 -0.17149813 0.64553761 198 163 107
-0.54895371 -0.22148487 0.62046212 198 163 107
-0.23177838 -0.17167760 -0.55469668 198 163 107
0.38280225 -0.17625198 0.63217932 198 163 107
0.54903245 -0.23508996 -0.40365076 198 163 107
0.43069208 -0.12795806 -0.28274548 198 163 107
0.55616879 -0.20782319 0.21089873 198 163 107
0.07390763 0.21777013 -0.18939330 198 163 107
-0.41893601 -0.16670793 -0.08467996 198 163 107
0.04494458 0.09438422 0.33729810 198 163 107
0.01344670 0.09206935 0.20439348 198 163 107
-0.54389584 -0.24458742 -0.77403617 198 163 107
0.52745825 -0.23099583 0.67443758 198 163 107
0.37155920 -0.06158763 -0.53026593 198 163 107
0.08492056 -0.16588160 0.63048071 198 163 107
-0.54432154 -0.16391288 -0.03198977 198 163 107
-0.53391176 -0.16355500 0.42831415 198 163 107
0.02185616 0.07853926 -0.60236639 198 163 107
0.54690647 -0.24360079 -0.34980184 198 163 107
-0.25495881 -0.16620739 0.27359867 198 163 107
0.52173030 -0.23298925 -0.81800956 198 163 107
-0.47189122 -0.18139544 -0.65377522 198 163 107
0.04192054 0.12698443 0.24283582 198 163 107
0.41611373 -0.08762918 -0.43083334 198 163 107
-0.41030520 -0.16851857 -0.36636120 198 163 107
-0.50220561 -0.16404578 0.15846004 198 163 107
0.04783797 0.18306527 -0.14266741 198 163 107
0.41671667 -0.16659158 0.28894943 198 163 107
-0.48237973 -0.17923073 -0.21403570 198 163 107
-0.53861171 -0.16546074 -0.17807519 198 163 107
0.41227135 -0.16779974 0.09214862 198 163 107
-0.43375063 -0.20631042 0.70600927 198 163 107
0.35979447 -0.16642770 0.67311954 198 163 107
0.44078282 -0.09776790 -0.35108802 198 163 107
0.32089871 -0.18770736 -0.75102758 198 163 107
-0.54926676 -0.16636471 -0.33527219 198 163 107
0.08205511 -0.18450983 -0.84049731 198 163 107
-0.18520224 -0.18204626 -0.77056086 198 163 107
0.22083272 -0.04076991 -0.63315773 198 163 107
-0.07476453 0.14979416 -0.45048752 198 163 107
0.36368570 -0.17080073 -0.63789266 198 163 107
0.12357140 -0.08741129 -0.12301191 198 163 107
-0.29452628 -0.17006069 -0.38575584 198 163 107
0.30489075 -0.08734637 -0.05480829 198 163 107
-0.37395746 -0.17305340 -0.80385846 198 163 107
-0.44177130 -0.16224766 0.66065043 198 163 107
0.25869790 0.15436472 -0.28080782 198 163 107
-0.18084309 -0.11611290 -0.22869365 198 163 107
-0.03159469 -0.17163321 0.64638281 198 163 107
0.14251974 0.05407500 -0.61178356 198 163 107
0.19645387 -0.16559768 0.52658767 198 163 107
-0.42519838 -0.16557829 0.08669686 198 163 107
0.08672766 0.02379215 0.13703938 198 163 107
-0.35377124 -0.16982915 -0.42832655 198 163 107
0.41033816 -0.15098089 -0.28365242 198 163 107
0.36771372 0.05002506 -0.21431264 198 163 107
-0.00825516 -0.00197943 0.53466964 198 163 107
0.29021353 -0.06161684 -0.60608375 198 163 107
-0.53079194 -0.16446477 -0.07369098 198 163 107
-0.12443263 -0.20510675 0.73901892 198 163 107
0.36642155 -0.16868955 0.10039149 198 163 107
-0.55875045 -0.18024194 0.39110196 198 163 107
0.55338258 -0.21788308 -0.58003020 198 163 107
0.56307977 -0.18361607 -0.23539196 198 163 107
-0.02795600 -0.01741735 0.22953236 198 163 107
-0.32823756 -0.16964869 -0.40100279 198 163 107
-0.17277879 0.06520872 -0.20427600 198 163 107
0.01312279 0.12701865 0.32927471 198 163 107
-0.00084617 0.00355782 0.01376862 198 163 107
0.56312400 -0.17904511 -0.22555178 198 163 107
-0.27669817 0.03005894 -0.31434765 198 163 107
-0.33168024 -0.17185502 -0.68400657 198 163 107
-0.38966176 -0.16325688 0.52633959 198 163 107
0.07677913 -0.14457208 0.43475187 198 163 107
0.16048604 -0.17107996 0.15269089 198 163 107
-0.05319361 -0.02223172 0.53032339 198 163 107
-0.11548159 -0.18163675 -0.77331305 198 163 107
-0.35111231 -0.17379011 -0.81169462 198 163 107
0.32051426 -0.16736978 0.46187994 198 163 107
0.56124777 -0.19149157 -0.13536093 198 163 107
0.12835658 0.02288832 0.26553059 198 163 107
-0.12168967 -0.16831642 0.26628733 198 163 107
0.32963881 0.10817923 -0.32033116 198 163 107
0.55261248 -0.22097878 -0.51446217 198 163 107
-0.14192845 -0.17301983 -0.55595100 198 163 107
0.10434712 -0.00200780 0.13379954 198 163 107
0.51030988 -0.16599418 0.19738071 198 163 107
0.33248907 -0.17091517 -0.61604029 198 163 107
-0.10056438 -0.16503257 0.55230224 198 163 107
0.03673660 0.19189017 -0.29536620 198 163 107
0.31601211 -0.21539730 -0.83597732 198 163 107
-0.39405876 -0.17916211 -0.84182894 198 163 107
-0.37636718 -0.16899312 -0.38703838 198 163 107
0.02516753 -0.09119527 -0.13098736 198 163 107
-0.01417714 0.04121963 0.12885925 198 163 107
0.19688988 -0.17317672 -0.78243530 198 163 107
-0.52494413 -0.16353875 0.52106500 198 163 107
0.22781335 -0.16698517 0.40560961 198 163 107
0.36964607 0.07402155 -0.27054024 198 163 107
-0.56051421 -0.17257939 -0.28205389 198 163 107
0.29516566 -0.16688940 0.50079626 198 163 107
-0.44175038 -0.16393092 0.37161049 198 163 107
-0.50754249 -0.16460586 0.04699978 198 163 107
0.03683561 -0.11332832 -0.01379611 198 163 107
-0.35053656 -0.17103775 -0.62280881 198 163 107
0.05125253 -0.17001081 -0.03911084 198 163 107
0.05053945 0.19270228 -0.30419359 198 163 107
-0.11618119 -0.06820420 -0.62371594 198 163 107
-0.03541734 0.07731746 -0.60416102 198 163 107
-0.41016933 -0.16852778 -0.38408357 198 163 107
0.18987876 -0.05545032 -0.07696754 198 163 107
0.10175683 -0.15329921 -0.09630353 198 163 107
0.27658561 0.10299331 -0.47696251 198 163 107
-0.55984968 -0.18060175 -0.63948137 198 163 107
-0.07878325 -0.12703380 0.57002997 198 163 107
-0.08648825 0.15004903 -0.47625548 198 163 107
0.37683401 -0.16690759 0.42312235 198 163 107
0.33193409 -0.24672304 -0.82758015 198 163 107
0.30891997 0.04750661 -0.52777046 198 163 107
-0.55315000 -0.20180118 0.64023185 198 163 107
-0.11741148 0.15066001 -0.43036324 198 163 107
0.55270863 -0.21536016 0.32031265 198 163 107
-0.48780566 -0.16638073 0.61778480 198 163 107
0.12883911 -0.12466737 -0.08690561 198 163 107
-0.21244988 0.08588425 -0.26337835 198 163 107
-0.00964924 -0.17056178 -0.03921445 198 163 107
-0.28597331 -0.01264485 -0.39059818 198 163 107
-0.37826478 -0.16633718 0.01702749 198 163 107
0.10051457 -0.16551182 0.73648357 198 163 107
0.05281230 -0.19546923 0.74362499 198 163 107
0.54999673 -0.23094602 0.24964531 198 163 107
0.56289995 -0.18476972 -0.36864334 198 163 107
-0.20046310 -0.16621295 0.37345034 198 163 107
0.28113586 0.00075557 -0.06743115 198 163 107
-0.28089029 -0.18113661 -0.84354579 198 163 107
0.05767802 0.06452485 0.13452785 198 163 107
-0.03973498 -0.16994554 0.00040816 198 163 107
0.53084093 -0.16712663 0.11666952 198 163 107
-0.04719426 0.10149462 -0.15624490 198 163 107
0.28338262 -0.16815083 0.09155949 198 163 107
-0.55582398 -0.16851445 -0.75384772 198 163 107
0.16170472 0.15660155 -0.45432478 198 163 107
0.20341960 -0.17217496 -0.69509745 198 163 107
-0.55071247 -0.16557977 0.24052221 198 163 107
0.01222999 -0.15103613 0.48748568 198 163 107
0.10495584 -0.03887083 -0.66694432 198 163 107
0.40280408 -0.17015593 -0.51971567 198 163 107
0.03221785 0.08553955 -0.12076271 198 163 107
-0.19644317 0.10207101 -0.21227625 198 163 107
0.46269190 -0.16509697 0.70186329 198 163 107
0.13445856 -0.13071038 0.32084835 198 163 107
-0.55248010 -0.16405588 0.46458182 198 163 107
0.48911297 -0.17775294 0.20395756 198 163 107
-0.42273951 -0.16495581 0.26819068 198 163 107
-0.38404915 -0.16539323 0.17533524 198 163 107
0.25189355 -0.17199382 -0.71460599 198 163 107
-0.06628124 0.17262055 -0.27028725 198 163 107
-0.18650341 0.12539040 -0.32618016 198 163 107
-0.04197995 0.02486491 0.37760425 198 163 107
-0.22028585 -0.17176661 -0.54457396 198 163 107
0.25546947 0.06667778 -0.55176699 198 163 107
0.54324859 -0.16505179 0.63388318 198 163 107
-0.04221986 -0.00461310 0.32830510 198 163 107
-0.55289698 -0.17703182 0.66265571 198 163 107
-0.53960407 -0.18570878 -0.81424856 198 163 107
0.05129242 -0.16593003 0.59376597 198 163 107
-0.02480406 -0.17247215 -0.65188318 198 163 107
0.02963065 -0.22957145 0.73540771 198 163 107
-0.08907509 -0.12418875 -0.60453773 198 163 107
0.20705780 -0.17210343 -0.68568957 198 163 107
0.23683798 -0.10229585 -0.03628858 198 163 107
-0.04855977 0.16479020 -0.46076381 198 163 107
-0.04616905 -0.06006349 -0.16387233 198 163 107
-0.18876547 -0.17318901 -0.69772267 198 163 107
0.32738531 -0.17992523 0.72974366 198 163 107
-0.04123786 0.00364116 0.31750280 198 163 107
0.39613056 -0.16742462 0.19223101 198 163 107
0.40093717 -0.16776735 0.14695592 198 163 107
-0.24007644 -0.16518867 0.57961887 198 163 107
-0.46852377 -0.18230669 -0.72474813 198 163 107
0.07850038 0.03607595 -0.64482254 198 163 107
0.34381846 -0.17090723 -0.55628449 198 163 107
-0.33795181 -0.17692545 -0.70306283 198 163 107
0.20245323 0.10081591 -0.10116585 198 163 107
0.26994851 0.01995701 -0.07108958 198 163 107
-0.11419982 -0.16736588 0.31243765 198 163 107
-0.30396503 -0.17348033 -0.79555160 198 163 107
0.55644560 -0.16724524 0.60944849 198 163 107
-0.43233228 -0.16820700 -0.37961382 198 163 107
-0.54792237 -0.16789190 -0.71807706 198 163 107
0.15341438 -0.17165104 0.09285346 198 163 107
-0.21610409 0.09406177 -0.24387062 198 163 107
-0.39990732 -0.16482325 0.22985183 198 163 107
0.04285992 0.17682391 -0.13111266 198 163 107
0.05917600 -0.17732713 -0.77796257 198 163 107
-0.04255521 0.06473597 0.50118011 198 163 107
0.51108837 -0.16579165 0.46216291 198 163 107
0.21159625 -0.16770506 0.33543709 198 163 107
-0.51989836 -0.16334730 0.34280318 198 163 107
0.56101871 -0.18820594 0.45335492 198 163 107
0.34817410 -0.16811074 0.11809528 198 163 107
0.17192960 0.09534764 -0.56789762 198 163 107
0.27366000 0.01326522 -0.58908498 198 163 107
0.56109869 -0.18888551 -0.06891006 198 163 107
0.21309397 -0.17311105 -0.80822438 198 163 107
-0.27522540 -0.04035740 -0.24972050 198 163 107
-0.51963407 -0.16553108 -0.20905738 198 163 107
0.43547970 -0.16753811 -0.19881304 198 163 107
-0.44973245 -0.16432580 0.43675590 198 163 107
-0.08259916 -0.08415056 0.57560599 198 163 107
0.29420963 -0.09514652 -0.59912282 198 163 107
0.54864055 -0.22882763 0.62853056 198 163 107
-0.18900827 -0.05946609 -0.57168621 198 163 107
-0.31254476 -0.16424304 0.44921142 198 163 107
0.01967445 0.18754156 -0.33394706 198 163 107
0.15590957 0.18650514 -0.48175132 198 163 107
-0.15454066 -0.17472225 -0.79094994 198 163 107
-0.25653246 -0.16946384 -0.07354207 198 163 107
-0.31313199 -0.16415031 0.43743768 198 163 107
0.02784864 0.12848428 0.28194851 198 163 107
0.18864344 -0.11079937 -0.06415821 198 163 107
-0.23204951 0.07736564 -0.34553689 198 163 107
-0.52080166 -0.16597117 -0.32715160 198 163 107
0.39399654 -0.16775443 0.25794175 198 163 107
-0.04489286 -0.06736372 0.40164262 198 163 107
0.51376653 -0.16621536 0.40473792 198 163 107
-0.05532761 -0.06826662 0.45314008 198 163 107
0.23808908 -0.06675848 -0.04177368 198 163 107
0.15543619 0.06442440 -0.57796019 198 163 107
0.05590326 -0.10029718 0.49466884 198 163 107
-0.14085174 -0.08289985 -0.20493677 198 163 107
-0.40978622 -0.21472022 0.70968115 198 163 107
0.12595797 0.14084496 -0.13532391 198 163 107
0.20567855 -0.18614979 -0.76895463 198 163 107
0.30544356 0.09769560 -0.43792495 198 163 107
0.26765305 0.13331108 -0.21188480 198 163 107
0.18916772 -0.13918868 -0.63087273 198 163 107
-0.12045757 -0.16510803 0.73197275 198 163 107
-0.50805843 -0.16317371 0.53580081 198 163 107
0.33455783 -0.15861507 -0.14365055 198 163 107
-0.08757105 0.15155739 -0.47364557 198 163 107
0.24854414 -0.02780163 -0.03087486 198 163 107
0.51842368 -0.16735971 -0.12369232 198 163 107
0.07668410 0.17321612 -0.44054335 198 163 107
-0.20904081 0.10726620 -0.33520451 198 163 107
-0.32773313 -0.18932575 0.72760522 198 163 107
-0.53515500 -0.17275974 -0.81546366 198 163 107
0.00383865 -0.05849755 0.05911278 198 163 107
0.12269487 0.02042228 0.30361229 198 163 107
0.28770730 -0.16837333 0.30263084 198 163 107
0.33068436 -0.16735405 0.31748766 198 163 107
0.19432399 -0.16748829 0.40254074 198 163 107
-0.27048111 -0.16584522 -0.38883322 198 163 107
0.37321246 -0.16564932 0.58658725 198 163 107
-0.46158338 -0.17079268 0.48453426 198 163 107
0.28436121 -0.03070876 -0.04614506 198 163 107
-0.02001877 -0.08870830 -0.15093574 198 163 107
-0.19811727 -0.16990219 -0.23027638 198 163 107
-0.03499000 0.01768545 0.29429051 198 163 107
-0.28354210 -0.15834939 -0.28095418 198 163 107
-0.00022182 -0.07478353 -0.66964173 198 163 107
0.45834434 -0.17653199 -0.46425515 198 163 107
0.22136869 -0.00784915 -0.62460357 198 163 107
0.32245851 -0.16719107 0.11590149 198 163 107
-0.27225241 -0.17117663 -0.57940310 198 163 107
0.29504603 -0.01349493 -0.59206897 198 163 107
0.20456788 -0.16518071 0.54592907 198 163 107
0.07295131 -0.00655330 0.47214875 198 163 107
0.41895661 -0.16538256 0.68603826 198 163 107
0.42938396 -0.16646340 0.34750843 198 163 107
-0.17678797 -0.16936626 0.06189676 198 163 107
-0.37574142 -0.16341782 0.52019852 198 163 107
0.31439978 0.05581487 -0.50810468 198 163 107
-0.21207647 -0.23167080 -0.83146793 198 163 107
-0.37695560 -0.16485226 0.27297914 198 163 107
-0.19609261 -0.16357064 0.69513917 198 163 107
0.03936861 0.18767181 -0.12940995 198 163 107
0.25905472 0.15070698 -0.36725962 198 163 107
-0.35217577 -0.16464202 0.40748972 198 163 107
-0.10795989 -0.17680281 -0.84323156 198 163 107
0.14065577 -0.08619445 0.15671778 198 163 107
0.25867075 -0.17179273 -0.83386809 198 163 107
0.38708043 -0.09464158 -0.16346544 198 163 107
0.20417660 -0.16580297 0.72690600 198 163 107
0.27977726 -0.17171264 -0.71038377 198 163 107
0.43856657 -0.09679670 -0.36988318 198 163 107
0.31018645 -0.17077819 -0.54076153 198 163 107
0.15415752 0.12341984 -0.47649929 198 163 107
0.16768582 0.15500727 -0.49731696 198 163 107
-0.50178653 -0.16979995 -0.74941456 198 163 107
-0.09808671 0.05789002 -0.17584306 198 163 107
0.55276150 -0.21598113 0.29343313 198 163 107
0.13297991 0.16535291 -0.22493975 198 163 107
-0.00336220 -0.05242827 0.05674586 198 163 107
-0.00768630 -0.10559293 -0.65489185 198 163 107
-0.24464868 -0.17007230 -0.17797042 198 163 107
0.03157119 -0.16890067 -0.62311834 198 163 107
-0.07618962 -0.17023331 -0.00142627 198 163 107
0.05657225 -0.16638479 0.53095770 198 163 107
-0.33195347 -0.16814551 -0.13083476 198 163 107
-0.06862868 -0.17153929 -0.07128517 198 163 107
-0.13788296 0.15116727 -0.36400822 198 163 107
0.04177972 -0.17262536 -0.68775809 198 163 107
-0.28565359 -0.02596677 -0.28584418 198 163 107
-0.16324621 -0.21099451 -0.83685112 198 163 107
0.02679737 0.05515879 0.08396606 198 163 107
0.51515234 -0.19977170 0.69337606 198 163 107
0.51732606 -0.17691246 -0.83349907 198 163 107
0.29642302 -0.16927864 -0.01263866 198 163 107
-0.01747369 -0.05996380 0.52590340 198 163 107
0.40877989 -0.16770838 0.12596132 198 163 107
0.26634654 -0.19782989 0.73101461 198 163 107
-0.03928268 -0.16739097 0.18639287 198 163 107
0.38125789 0.01840696 -0.43542808 198 163 107
-0.46203396 -0.17091939 0.30644310 198 163 107
0.07756537 -0.01401099 0.08618280 198 163 107
0.11840822 0.24126208 -0.32993734 198 163 107
0.55070835 -0.16834681 -0.03575053 198 163 107
0.35301727 -0.23841652 0.71202874 198 163 107
0.04426558 -0.01543920 0.50200778 198 163 107
0.37001637 -0.03228988 -0.16170759 198 163 107
0.38569343 0.00164850 -0.45444313 198 163 107
0.43519685 -0.05330330 -0.32917234 198 163 107
-0.56077623 -0.17018507 -0.11483479 198 163 107
-0.11742942 -0.17053589 0.01320476 198 163 107
0.14870313 0.21885902 -0.38479453 198 163 107
-0.16350508 0.10651851 -0.20728262 198 163 107
-0.55652761 -0.16712679 -0.54315054 198 163 107
0.04300764 0.17716718 -0.41320041 198 163 107
-0.06320755 -0.12800676 0.40921041 198 163 107
-0.04675722 -0.13220601 0.54974842 198 163 107
0.13020009 0.17354083 -0.48273164 198 163 107
-0.49183992 -0.17677325 -0.65695280 198 163 107
-0.02888644 0.04400453 0.27897102 198 163 107
0.05505727 0.11264648 -0.11857899 198 163 107
-0.10237277 -0.17285666 -0.60896295 198 163 107
-0.45153236 -0.17096728 -0.44621059 198 163 107
0.32164416 -0.02610416 -0.10077713 198 163 107
-0.30841619 -0.16694312 0.09000666 198 163 107
-0.24353582 -0.08246863 -0.48185313 198 163 107
0.14765376 -0.10524561 0.32196623 198 163 107
0.42167878 -0.03526287 -0.39544940 198 163 107
-0.11712173 0.05508644 -0.59498537 198 163 107
0.19231352 0.15007158 -0.35708618 198 163 107
0.15619107 0.12696423 -0.47269952 198 163 107
-0.13040206 0.15289870 -0.36002645 198 163 107
-0.11247409 -0.16916190 0.09216145 198 163 107
0.41391850 -0.16862273 0.00174818 198 163 107
-0.04722914 -0.12584436 -0.16463801 198 163 107
0.50392479 -0.17448895 -0.70390970 198 163 107
0.10599825 0.00620441 -0.64834702 198 163 107
-0.07237507 -0.14513958 0.47991222 198 163 107
0.50590527 -0.17179286 -0.74876267 198 163 107
0.40357482 -0.02167378 -0.44101965 198 163 107
0.55728221 -0.20252174 0.06224837 198 163 107
0.16567701 -0.16973856 0.23263662 198 163 107
0.07105874 -0.16662939 0.52591586 198 163 107
-0.40873349 -0.16533615 0.15430379 198 163 107
0.21168086 0.09761766 -0.10032720 198 163 107
0.07245681 -0.09863482 0.02286305 198 163 107
0.48353297 -0.18136381 0.25581491 198 163 107
0.15093069 -0.16700251 0.46193501 198 163 107
-0.04980083 0.01414807 0.45806110 198 163 107
-0.26610553 -0.17619091 -0.73881924 198 163 107
0.18717240 0.03229142 -0.05839962 198 163 107
0.32467884 0.08746138 -0.22134876 198 163 107
-0.17835341 -0.18554546 0.74090439 198 163 107
0.52527988 -0.16881183 -0.58569527 198 163 107
0.25318518 -0.21099892 -0.83739424 198 163 107
0.22846311 0.13874692 -0.43594223 198 163 107
-0.47815892 -0.22138259 -0.83197653 198 163 107
0.15619498 0.10831889 -0.59587109 198 163 107
-0.27531916 -0.08558048 -0.26864192 198 163 107
-0.54862982 -0.24763562 -0.41610888 198 163 107
0.14190045 -0.18453233 -0.84451592 198 163 107
0.10677531 0.18308207 -0.43153477 198 163 107
0.10827879 0.02061744 0.17423613 198 163 107
-0.29603335 -0.16471155 0.40675050 198 163 107
0.06188786 0.06734356 0.16361889 198 163 107
0.35769647 -0.17778264 0.64702249 198 163 107
0.40156853 0.01386848 -0.35050249 198 163 107
0.44241047 -0.16552973 0.27755058 198 163 107
0.55029196 -0.23239335 -0.30747339 198 163 107
0.09777936 0.05608269 -0.62320709 198 163 107
-0.28361148 0.00109910 -0.38217720 198 163 107
-0.24674189 0.06070814 -0.38048750 198 163 107
0.18202516 0.16754779 -0.39777339 198 163 107
-0.01533279 0.04409593 0.13955763 198 163 107
-0.29594073 -0.17000163 -0.23748314 198 163 107
0.49032468 -0.17519389 -0.76526105 198 163 107
-0.53618151 -0.24360110 0.65392894 198 163 107
-0.41248915 -0.16348271 0.50652444 198 163 107
-0.13673544 -0.16661443 0.40089270 198 163 107
0.17009041 0.16729301 -0.36616582 198 163 107
0.07438535 0.20503198 -0.31624487 198 163 107
0.16070233 0.14904545 -0.45367554 198 163 107
0.19784757 -0.13788863 -0.62914872 198 163 107
0.40254182 -0.16860218 -0.03562677 198 163 107
0.31126225 0.09904866 -0.42458665 198 163 107
-0.07955442 -0.17050305 -0.02711828 198 163 107
0.38851720 0.02968971 -0.38663805 198 163 107
0.04419355 -0.17939287 -0.77549815 198 163 107
0.16681629 -0.16803223 0.38392472 198 163 107
-0.03183778 -0.01434990 0.54886448 198 163 107
0.07506991 0.05379158 0.38241392 198 163 107
-0.00952326 -0.14389437 -0.14702414 198 163 107
-0.09215674 0.14330006 -0.48656836 198 163 107
0.30858999 -0.14679730 -0.08436817 198 163 107
-0.06368110 -0.13490659 0.41281205 198 163 107
0.37794584 -0.03451195 -0.50927198 198 163 107
-0.08185177 0.15050855 -0.18043841 198 163 107
-0.37757099 -0.16875958 -0.33248231 198 163 107
-0.24355777 -0.17126273 -0.47465923 198 163 107
-0.25110683 -0.16990957 -0.15697958 198 163 107
0.38494575 -0.17563659 -0.83481133 198 163 107
0.13771871 -0.20968807 0.73911458 198 163 107
-0.06235107 -0.08995984 0.54028726 198 163 107
-0.33912873 -0.17078000 -0.61666584 198 163 107
0.48495141 -0.17721592 0.46329960 198 163 107
0.13209054 -0.16892096 0.74454516 198 163 107
-0.26605478 -0.17051059 -0.25473154 198 163 107
-0.12378602 -0.20355737 0.73939204 198 163 107
-0.02701894 -0.20278732 0.74401104 198 163 107
-0.04967201 -0.05729014 0.47306985 198 163 107
-0.25446081 -0.16564628 0.35308108 198 163 107
0.07690834 -0.14745276 0.08754500 198 163 107
0.21006438 -0.21180426 0.73316991 198 163 107
-0.15913655 -0.21799208 -0.83470696 198 163 107
0.03587782 -0.12211449 -0.12423538 198 163 107
0.53540689 -0.16660492 0.29869553 198 163 107
0.14690493 -0.09536459 0.34444138 198 163 107
0.13377151 -0.17281592 -0.71131754 198 163 107
0.00041031 -0.17283143 -0.71534407 198 163 107
-0.05235249 -0.15871291 0.30017638 198 163 107
-0.08204175 -0.08094832 0.56971884 198 163 107
-0.55382830 -0.21113330 0.39638561 198 163 107
-0.16943446 -0.17000273 0.01905233 198 163 107
0.17005664 -0.14811787 -0.06454080 198 163 107
-0.37325925 -0.16909927 -0.38788834 198 163 107
0.36277917 -0.16787505 0.18060020 198 163 107
-0.01836251 -0.16645758 0.72732651 198 163 107
-0.16570529 -0.17742950 -0.73935562 198 163 107
-0.16979122 -0.16784143 0.17961274 198 163 107
0.21138373 0.15703693 -0.19691420 198 163 107
-0.43223494 -0.16905746 -0.45723081 198 163 107
-0.54655957 -0.16387647 0.12508117 198 163 107
-0.48759747 -0.17738856 -0.26398247 198 163 107
-0.04974119 -0.11126965 0.48878798 198 163 107
-0.28579938 -0.16441663 0.56398404 198 163 107
-0.18909106 0.04067775 -0.54823709 198 163 107
-0.00110355 0.01365362 0.02538388 198 163 107
-0.22426046 -0.17293511 0.64469934 198 163 107
0.09337752 0.03304185 -0.64431918 198 163 107
-0.42505908 -0.16799650 -0.31721386 198 163 107
-0.06868906 -0.16199267 0.40959707 198 163 107
0.05151117 0.21640143 -0.18814158 198 163 107
-0.19744748 -0.13632362 -0.23345453 198 163 107
0.50818443 -0.21679613 -0.83163768 198 163 107
0.36491066 0.05596277 -0.22776335 198 163 107
-0.20973705 -0.16557714 0.38970330 198 163 107
0.08750933 0.09168676 -0.09304713 198 163 107
0.45277309 -0.16948748 -0.23902188 198 163 107
-0.10575742 0.08152550 -0.55807287 198 163 107
-0.29368067 -0.17101878 -0.62402284 198 163 107
0.01245533 -0.12731346 -0.03278993 198 163 107
0.10753291 -0.16893367 0.13488157 198 163 107
0.03648045 -0.03117234 -0.01788057 198 163 107
-0.15059473 -0.16776697 0.23988685 198 163 107
0.22807020 -0.10290257 -0.04300863 198 163 107
0.10849164 -0.17080143 -0.67384201 198 163 107
-0.55530304 -0.16429195 0.37475294 198 163 107
-0.52295184 -0.21468081 -0.81878018 198 163 107
0.31124878 -0.16763788 0.45855027 198 163 107
0.54547298 -0.24560887 -0.57782191 198 163 107
-0.04370639 -0.06175942 -0.16221446 198 163 107
-0.06719811 -0.05071325 -0.65420741 198 163 107
0.22665179 -0.06107818 -0.63548696 198 163 107
-0.03132828 -0.12498577 0.19963917 198 163 107
0.06986383 0.17996085 -0.21931905 198 163 107
-0.14568490 0.12389337 -0.48289979 198 163 107
-0.24006364 -0.05287243 -0.50381863 198 163 107
-0.30308110 -0.17359132 -0.79772079 198 163 107
-0.28010535 -0.16499282 0.67841154 198 163 107
-0.23717925 -0.17292836 -0.70481735 198 163 107
0.33271757 -0.16587433 0.54468495 198 163 107
-0.20639694 -0.16765277 0.25654748 198 163 107
0.00549794 0.10424517 0.39115936 198 163 107
0.35196468 0.05925315 -0.19519477 198 163 107
-0.22286716 0.07991745 -0.25989467 198 163 107
-0.00420982 0.08193961 -0.13931717 198 163 107
-0.38473040 -0.16365495 0.41024238 198 163 107
-0.04416522 -0.16903411 0.09586641 198 163 107
-0.05640951 -0.16543698 0.59425908 198 163 107
-0.08440338 0.15756904 -0.20146696 198 163 107
-0.23811656 0.00647776 -0.48206115 198 163 107
0.30549723 -0.16752487 0.32791713 198 163 107
-0.16495675 -0.16794917 0.18534011 198 163 107
0.09602882 -0.13856243 -0.65458083 198 163 107
0.56297374 -0.18410024 0.20822918 198 163 107
0.15788923 0.06288576 -0.63187206 198 163 107
0.29114315 -0.17103234 -0.08286104 198 163 107
0.42951256 -0.16436809 0.59995115 198 163 107
-0.42341846 -0.16411482 0.65658081 198 163 107
-0.41127566 -0.16464728 0.27573904 198 163 107
-0.08620519 0.15834339 -0.34241110 198 163 107
0.35291097 -0.17109831 -0.51830876 198 163 107
-0.05516789 0.00026056 0.54537994 198 163 107
0.15812302 0.16656885 -0.46749753 198 163 107
0.30810526 0.06710588 -0.14990146 198 163 107
-0.02468715 -0.17151915 -0.12309459 198 163 107
-0.29718384 -0.16677727 0.11353039 198 163 107
0.18243846 -0.19164112 -0.84333456 198 163 107
0.08426620 0.03899571 0.14909500 198 163 107
-0.31067047 -0.19063666 -0.84163332 198 163 107
0.02580985 0.19982368 -0.15269813 198 163 107
-0.48767555 -0.17152642 0.31512165 198 163 107
-0.47572160 -0.23305234 0.69398063 198 163 107
0.20814620 -0.16980562 -0.00790547 198 163 107
0.26025185 -0.16876155 -0.04450084 198 163 107
-0.00215917 0.07045630 0.05401042 198 163 107
-0.11245244 0.05110303 -0.60126030 198 163 107
-0.24078706 -0.17224102 -0.65397042 198 163 107
0.37293100 -0.23020509 -0.83229649 198 163 107
0.04775103 -0.10527637 0.49937028 198 163 107
-0.55602646 -0.20792820 -0.66367519 198 163 107
0.34089351 0.09387409 -0.33786511 198 163 107
-0.01160324 -0.17142563 -0.62960881 198 163 107
0.36002353 0.05489837 -0.21534370 198 163 107
-0.06177902 -0.16725096 0.30153075 198 163 107
0.22367443 -0.18445842 -0.74630195 198 163 107
-0.55069661 -0.16417448 0.12709023 198 163 107
-0.27026910 0.02639416 -0.35029012 198 163 107
0.08408795 0.22095770 -0.30668679 198 163 107
-0.09313257 -0.16686428 0.40530786 198 163 107
0.15235893 0.21643111 -0.36394894 198 163 107
0.12281010 -0.17169037 0.12152819 198 163 107
-0.09902487 -0.17680416 0.66794169 198 163 107
